ply
    		format ascii 1.0
    		element vertex 39309
    		property float x
    		property float y
    		property float z
    		property uchar red
    		property uchar green
    		property uchar blue
    		end_header
9.400000 9.200000 2.078849 255 255 255
9.400000 9.250000 2.134033 255 255 255
9.400000 9.300000 2.179836 255 255 255
9.400000 9.350000 2.234519 255 255 255
9.400000 9.400000 2.279787 255 255 255
9.400000 9.450000 2.333937 255 255 255
9.400000 9.500000 2.385436 255 255 255
9.400000 9.550000 2.433438 255 255 255
9.400000 9.600000 2.491249 255 255 255
9.400000 9.650000 2.537191 255 255 255
9.400000 9.700000 2.553176 255 255 255
9.400000 9.750000 2.568489 255 255 255
9.400000 9.800000 2.571976 255 255 255
9.400000 9.850000 2.582870 255 255 255
9.400000 9.900000 2.624738 255 255 255
9.400000 9.950000 2.669381 255 255 255
9.400000 10.000000 2.716213 255 255 255
9.400000 10.050000 2.745193 255 255 255
9.400000 10.100000 2.767355 255 255 255
9.400000 10.150000 2.793424 255 255 255
9.400000 10.200000 2.819710 255 255 255
9.400000 10.250000 2.821193 255 255 255
9.400000 10.300000 2.831079 255 255 255
9.400000 10.350000 2.843627 255 255 255
9.400000 10.400000 2.862947 255 255 255
9.400000 10.450000 2.887276 255 255 255
9.400000 10.500000 2.925387 255 255 255
9.400000 10.550000 2.974247 255 255 255
9.400000 10.600000 3.016667 255 255 255
9.400000 10.650000 3.049298 255 255 255
9.400000 10.700000 3.078939 255 255 255
9.400000 10.750000 3.104422 255 255 255
9.400000 10.800000 3.124482 255 255 255
9.400000 10.850000 3.142644 255 255 255
9.400000 10.900000 3.154305 255 255 255
9.400000 10.950000 3.154784 255 255 255
9.400000 11.000000 3.163766 255 255 255
9.400000 11.050000 3.221160 255 255 255
9.400000 11.100000 3.262828 255 255 255
9.400000 11.150000 3.305282 255 255 255
9.400000 11.200000 3.334100 255 255 255
9.400000 11.250000 3.343256 255 255 255
9.400000 11.300000 3.348487 255 255 255
9.400000 11.350000 3.377775 255 255 255
9.400000 11.400000 3.399408 255 255 255
9.400000 11.450000 3.411839 255 255 255
9.400000 11.500000 3.430924 255 255 255
9.400000 11.550000 3.451855 255 255 255
9.400000 11.600000 3.476774 255 255 255
9.400000 11.650000 3.506609 255 255 255
9.400000 11.700000 3.525869 255 255 255
9.400000 11.750000 3.549523 255 255 255
9.400000 11.800000 3.565620 255 255 255
9.400000 11.850000 3.580364 255 255 255
9.400000 11.900000 3.589917 255 255 255
9.400000 11.950000 3.630186 255 255 255
9.400000 12.000000 3.660247 255 255 255
9.400000 12.050000 3.676081 255 255 255
9.400000 12.100000 3.689718 255 255 255
9.400000 12.150000 3.695459 255 255 255
9.400000 12.200000 3.701376 255 255 255
9.400000 12.250000 3.707973 255 255 255
9.400000 12.300000 3.715315 255 255 255
9.400000 12.350000 3.723372 255 255 255
9.400000 12.400000 3.732160 255 255 255
9.400000 12.450000 3.741812 255 255 255
9.400000 12.500000 3.752687 255 255 255
9.400000 12.550000 3.765187 255 255 255
9.400000 12.600000 3.779478 255 255 255
9.400000 12.650000 3.795448 255 255 255
9.400000 12.700000 3.812484 255 255 255
9.400000 12.750000 3.829622 255 255 255
9.400000 12.800000 3.852778 255 255 255
9.400000 12.850000 3.865964 255 255 255
9.400000 12.900000 3.891593 255 255 255
9.400000 12.950000 3.902856 255 255 255
9.400000 13.000000 3.955394 255 255 255
9.400000 13.050000 3.958586 255 255 255
9.400000 13.100000 3.969809 255 255 255
9.400000 13.150000 4.059180 255 255 255
9.400000 13.200000 4.088339 255 255 255
9.400000 13.250000 4.117091 255 255 255
9.400000 13.300000 4.190773 255 255 255
9.400000 13.350000 4.202878 255 255 255
9.400000 13.400000 4.213253 255 255 255
9.400000 13.450000 4.211020 255 255 255
9.400000 13.500000 4.210517 255 255 255
9.400000 13.550000 4.215172 255 255 255
9.400000 13.600000 4.219893 255 255 255
9.400000 13.650000 4.223144 255 255 255
9.400000 13.700000 4.212424 255 255 255
9.400000 13.750000 4.204094 255 255 255
9.400000 13.800000 4.196928 255 255 255
9.400000 13.850000 4.200058 255 255 255
9.400000 13.900000 4.204818 255 255 255
9.400000 13.950000 4.222116 255 255 255
9.400000 14.000000 4.227905 255 255 255
9.400000 14.050000 4.228569 255 255 255
9.400000 14.100000 4.235051 255 255 255
9.400000 14.150000 4.241453 255 255 255
9.400000 14.200000 4.248250 255 255 255
9.400000 14.250000 4.247461 255 255 255
9.400000 14.300000 4.250015 255 255 255
9.400000 14.350000 4.244030 255 255 255
9.400000 14.400000 4.225981 255 255 255
9.400000 14.450000 4.200323 255 255 255
9.400000 14.500000 4.166043 255 255 255
9.400000 14.550000 4.163776 255 255 255
9.400000 14.600000 4.171027 255 255 255
9.400000 14.650000 4.176679 255 255 255
9.400000 14.700000 4.183164 255 255 255
9.400000 14.750000 4.193913 255 255 255
9.400000 14.800000 4.199937 255 255 255
9.400000 14.850000 4.206157 255 255 255
9.400000 14.900000 4.193332 255 255 255
9.400000 14.950000 4.180016 255 255 255
9.400000 15.000000 4.162229 255 255 255
9.400000 15.050000 4.148670 255 255 255
9.400000 15.100000 4.106699 255 255 255
9.400000 15.150000 4.051049 255 255 255
9.400000 15.200000 4.028210 255 255 255
9.400000 15.250000 3.999317 255 255 255
9.400000 15.300000 3.950229 255 255 255
9.400000 15.350000 3.914694 255 255 255
9.400000 15.400000 3.905771 255 255 255
9.400000 15.450000 3.899021 255 255 255
9.400000 15.500000 3.885331 255 255 255
9.400000 15.550000 3.878990 255 255 255
9.400000 15.600000 3.791676 255 255 255
9.400000 15.650000 3.777099 255 255 255
9.400000 15.700000 3.757156 255 255 255
9.400000 15.750000 3.712070 255 255 255
9.400000 15.800000 3.679205 255 255 255
9.400000 15.850000 3.637613 255 255 255
9.400000 15.900000 3.536089 255 255 255
9.400000 15.950000 3.539375 255 255 255
9.400000 16.000000 3.508467 255 255 255
9.400000 16.050000 3.526807 255 255 255
9.400000 16.100000 3.501616 255 255 255
9.400000 16.150000 3.492360 255 255 255
9.400000 16.200000 3.497776 255 255 255
9.400000 16.250000 3.501125 255 255 255
9.400000 16.300000 3.501752 255 255 255
9.400000 16.350000 3.514290 255 255 255
9.400000 16.400000 3.481601 255 255 255
9.400000 16.450000 3.464897 255 255 255
9.400000 16.500000 3.433318 255 255 255
9.400000 16.550000 3.407621 255 255 255
9.400000 16.600000 3.339667 255 255 255
9.400000 16.650000 3.317441 255 255 255
9.400000 16.700000 3.317967 255 255 255
9.400000 16.750000 3.292625 255 255 255
9.400000 16.800000 3.258670 255 255 255
9.400000 16.850000 3.237596 255 255 255
9.400000 16.900000 3.213016 255 255 255
9.400000 16.950000 3.175317 255 255 255
9.400000 17.000000 3.139351 255 255 255
9.400000 17.050000 3.107568 255 255 255
9.400000 17.100000 3.074203 255 255 255
9.400000 17.150000 3.041940 255 255 255
9.400000 17.200000 3.018430 255 255 255
9.400000 17.250000 2.993926 255 255 255
9.400000 17.300000 2.958821 255 255 255
9.400000 17.350000 2.922506 255 255 255
9.400000 17.400000 2.886595 255 255 255
9.400000 17.450000 2.847408 255 255 255
9.400000 17.500000 2.808156 255 255 255
9.400000 17.550000 2.770856 255 255 255
9.400000 17.600000 2.733288 255 255 255
9.400000 17.650000 2.696830 255 255 255
9.400000 17.700000 2.656700 255 255 255
9.400000 17.750000 2.614883 255 255 255
9.400000 17.800000 2.572572 255 255 255
9.400000 17.850000 2.531055 255 255 255
9.400000 17.900000 2.485680 255 255 255
9.400000 17.950000 2.442487 255 255 255
9.400000 18.000000 2.387924 255 255 255
9.400000 18.050000 2.363395 255 255 255
9.400000 18.100000 2.325063 255 255 255
9.400000 18.150000 2.295640 255 255 255
9.400000 18.200000 2.265875 255 255 255
9.400000 18.250000 2.230988 255 255 255
9.400000 18.300000 2.234771 255 255 255
9.400000 18.350000 2.239374 255 255 255
9.400000 18.400000 2.244986 255 255 255
9.400000 18.450000 2.247296 255 255 255
9.400000 18.500000 2.206650 255 255 255
9.400000 18.550000 2.142247 255 255 255
9.400000 18.600000 2.136813 255 255 255
9.400000 18.650000 2.110297 255 255 255
9.400000 18.700000 2.088294 255 255 255
9.400000 18.750000 2.071116 255 255 255
9.400000 18.800000 2.036722 255 255 255
9.400000 18.850000 2.002722 255 255 255
9.450000 9.100000 2.003776 255 255 255
9.450000 9.150000 2.039140 255 255 255
9.450000 9.200000 2.069286 255 255 255
9.450000 9.250000 2.118876 255 255 255
9.450000 9.300000 2.174765 255 255 255
9.450000 9.350000 2.226038 255 255 255
9.450000 9.400000 2.275542 255 255 255
9.450000 9.450000 2.329731 255 255 255
9.450000 9.500000 2.380573 255 255 255
9.450000 9.550000 2.427364 255 255 255
9.450000 9.600000 2.480449 255 255 255
9.450000 9.650000 2.527936 255 255 255
9.450000 9.700000 2.559471 255 255 255
9.450000 9.750000 2.567346 255 255 255
9.450000 9.800000 2.574373 255 255 255
9.450000 9.850000 2.578091 255 255 255
9.450000 9.900000 2.625578 255 255 255
9.450000 9.950000 2.671168 255 255 255
9.450000 10.000000 2.709183 255 255 255
9.450000 10.050000 2.740394 255 255 255
9.450000 10.100000 2.771499 255 255 255
9.450000 10.150000 2.800065 255 255 255
9.450000 10.200000 2.812123 255 255 255
9.450000 10.250000 2.810107 255 255 255
9.450000 10.300000 2.811250 255 255 255
9.450000 10.350000 2.810759 255 255 255
9.450000 10.400000 2.845106 255 255 255
9.450000 10.450000 2.866954 255 255 255
9.450000 10.500000 2.923475 255 255 255
9.450000 10.550000 2.968727 255 255 255
9.450000 10.600000 3.008891 255 255 255
9.450000 10.650000 3.054111 255 255 255
9.450000 10.700000 3.081383 255 255 255
9.450000 10.750000 3.104468 255 255 255
9.450000 10.800000 3.123927 255 255 255
9.450000 10.850000 3.139243 255 255 255
9.450000 10.900000 3.151228 255 255 255
9.450000 10.950000 3.157467 255 255 255
9.450000 11.000000 3.179939 255 255 255
9.450000 11.050000 3.210739 255 255 255
9.450000 11.100000 3.239052 255 255 255
9.450000 11.150000 3.312959 255 255 255
9.450000 11.200000 3.333662 255 255 255
9.450000 11.250000 3.347224 255 255 255
9.450000 11.300000 3.364216 255 255 255
9.450000 11.350000 3.378236 255 255 255
9.450000 11.400000 3.403286 255 255 255
9.450000 11.450000 3.417822 255 255 255
9.450000 11.500000 3.430133 255 255 255
9.450000 11.550000 3.434904 255 255 255
9.450000 11.600000 3.450581 255 255 255
9.450000 11.650000 3.465234 255 255 255
9.450000 11.700000 3.488020 255 255 255
9.450000 11.750000 3.524503 255 255 255
9.450000 11.800000 3.538875 255 255 255
9.450000 11.850000 3.565677 255 255 255
9.450000 11.900000 3.617875 255 255 255
9.450000 11.950000 3.612031 255 255 255
9.450000 12.000000 3.669842 255 255 255
9.450000 12.050000 3.673883 255 255 255
9.450000 12.100000 3.677960 255 255 255
9.450000 12.150000 3.702700 255 255 255
9.450000 12.200000 3.706538 255 255 255
9.450000 12.250000 3.712082 255 255 255
9.450000 12.300000 3.718820 255 255 255
9.450000 12.350000 3.726399 255 255 255
9.450000 12.400000 3.734653 255 255 255
9.450000 12.450000 3.743604 255 255 255
9.450000 12.500000 3.753957 255 255 255
9.450000 12.550000 3.766647 255 255 255
9.450000 12.600000 3.782112 255 255 255
9.450000 12.650000 3.800662 255 255 255
9.450000 12.700000 3.821644 255 255 255
9.450000 12.750000 3.846190 255 255 255
9.450000 12.800000 3.866032 255 255 255
9.450000 12.850000 3.886017 255 255 255
9.450000 12.900000 3.911307 255 255 255
9.450000 12.950000 3.941812 255 255 255
9.450000 13.000000 3.957463 255 255 255
9.450000 13.050000 3.968396 255 255 255
9.450000 13.100000 3.974401 255 255 255
9.450000 13.150000 4.038627 255 255 255
9.450000 13.200000 4.095870 255 255 255
9.450000 13.250000 4.173460 255 255 255
9.450000 13.300000 4.196975 255 255 255
9.450000 13.350000 4.213387 255 255 255
9.450000 13.400000 4.217676 255 255 255
9.450000 13.450000 4.220261 255 255 255
9.450000 13.500000 4.221780 255 255 255
9.450000 13.550000 4.225115 255 255 255
9.450000 13.600000 4.226349 255 255 255
9.450000 13.650000 4.229769 255 255 255
9.450000 13.700000 4.218090 255 255 255
9.450000 13.750000 4.212626 255 255 255
9.450000 13.800000 4.211205 255 255 255
9.450000 13.850000 4.203990 255 255 255
9.450000 13.900000 4.197133 255 255 255
9.450000 13.950000 4.243723 255 255 255
9.450000 14.000000 4.239799 255 255 255
9.450000 14.050000 4.239251 255 255 255
9.450000 14.100000 4.244997 255 255 255
9.450000 14.150000 4.251582 255 255 255
9.450000 14.200000 4.255586 255 255 255
9.450000 14.250000 4.257534 255 255 255
9.450000 14.300000 4.262860 255 255 255
9.450000 14.350000 4.251043 255 255 255
9.450000 14.400000 4.229316 255 255 255
9.450000 14.450000 4.211833 255 255 255
9.450000 14.500000 4.155457 255 255 255
9.450000 14.550000 4.156825 255 255 255
9.450000 14.600000 4.169199 255 255 255
9.450000 14.650000 4.177048 255 255 255
9.450000 14.700000 4.185444 255 255 255
9.450000 14.750000 4.187062 255 255 255
9.450000 14.800000 4.200075 255 255 255
9.450000 14.850000 4.206571 255 255 255
9.450000 14.900000 4.194258 255 255 255
9.450000 14.950000 4.183619 255 255 255
9.450000 15.000000 4.164470 255 255 255
9.450000 15.050000 4.140371 255 255 255
9.450000 15.100000 4.113622 255 255 255
9.450000 15.150000 4.035115 255 255 255
9.450000 15.200000 4.019997 255 255 255
9.450000 15.250000 4.002552 255 255 255
9.450000 15.300000 3.974665 255 255 255
9.450000 15.350000 3.918216 255 255 255
9.450000 15.400000 3.909572 255 255 255
9.450000 15.450000 3.902008 255 255 255
9.450000 15.500000 3.887024 255 255 255
9.450000 15.550000 3.880565 255 255 255
9.450000 15.600000 3.796231 255 255 255
9.450000 15.650000 3.781754 255 255 255
9.450000 15.700000 3.779565 255 255 255
9.450000 15.750000 3.730135 255 255 255
9.450000 15.800000 3.695508 255 255 255
9.450000 15.850000 3.623961 255 255 255
9.450000 15.900000 3.540252 255 255 255
9.450000 15.950000 3.492146 255 255 255
9.450000 16.000000 3.483315 255 255 255
9.450000 16.050000 3.502256 255 255 255
9.450000 16.100000 3.491135 255 255 255
9.450000 16.150000 3.493366 255 255 255
9.450000 16.200000 3.484950 255 255 255
9.450000 16.250000 3.495761 255 255 255
9.450000 16.300000 3.509205 255 255 255
9.450000 16.350000 3.512188 255 255 255
9.450000 16.400000 3.491951 255 255 255
9.450000 16.450000 3.491525 255 255 255
9.450000 16.500000 3.464725 255 255 255
9.450000 16.550000 3.419958 255 255 255
9.450000 16.600000 3.359442 255 255 255
9.450000 16.650000 3.292164 255 255 255
9.450000 16.700000 3.318719 255 255 255
9.450000 16.750000 3.311699 255 255 255
9.450000 16.800000 3.269196 255 255 255
9.450000 16.850000 3.241830 255 255 255
9.450000 16.900000 3.206865 255 255 255
9.450000 16.950000 3.169956 255 255 255
9.450000 17.000000 3.134692 255 255 255
9.450000 17.050000 3.105252 255 255 255
9.450000 17.100000 3.070153 255 255 255
9.450000 17.150000 3.046102 255 255 255
9.450000 17.200000 3.022254 255 255 255
9.450000 17.250000 2.996405 255 255 255
9.450000 17.300000 2.966277 255 255 255
9.450000 17.350000 2.926580 255 255 255
9.450000 17.400000 2.888691 255 255 255
9.450000 17.450000 2.847375 255 255 255
9.450000 17.500000 2.808870 255 255 255
9.450000 17.550000 2.770175 255 255 255
9.450000 17.600000 2.731294 255 255 255
9.450000 17.650000 2.692253 255 255 255
9.450000 17.700000 2.651768 255 255 255
9.450000 17.750000 2.610006 255 255 255
9.450000 17.800000 2.567200 255 255 255
9.450000 17.850000 2.523189 255 255 255
9.450000 17.900000 2.476477 255 255 255
9.450000 17.950000 2.426151 255 255 255
9.450000 18.000000 2.372299 255 255 255
9.450000 18.050000 2.335194 255 255 255
9.450000 18.100000 2.298492 255 255 255
9.450000 18.150000 2.282075 255 255 255
9.450000 18.200000 2.263788 255 255 255
9.450000 18.250000 2.250856 255 255 255
9.450000 18.300000 2.246900 255 255 255
9.450000 18.350000 2.246021 255 255 255
9.450000 18.400000 2.245343 255 255 255
9.450000 18.450000 2.240668 255 255 255
9.450000 18.500000 2.234398 255 255 255
9.450000 18.550000 2.183682 255 255 255
9.450000 18.600000 2.142414 255 255 255
9.450000 18.650000 2.116398 255 255 255
9.450000 18.700000 2.104568 255 255 255
9.450000 18.750000 2.075358 255 255 255
9.450000 18.800000 2.040279 255 255 255
9.450000 18.850000 2.008632 255 255 255
9.500000 9.150000 2.041701 255 255 255
9.500000 9.200000 2.085021 255 255 255
9.500000 9.250000 2.126359 255 255 255
9.500000 9.300000 2.180024 255 255 255
9.500000 9.350000 2.221202 255 255 255
9.500000 9.400000 2.266622 255 255 255
9.500000 9.450000 2.324612 255 255 255
9.500000 9.500000 2.375122 255 255 255
9.500000 9.550000 2.425800 255 255 255
9.500000 9.600000 2.478819 255 255 255
9.500000 9.650000 2.531230 255 255 255
9.500000 9.700000 2.544957 255 255 255
9.500000 9.750000 2.559418 255 255 255
9.500000 9.800000 2.570097 255 255 255
9.500000 9.850000 2.584576 255 255 255
9.500000 9.900000 2.631048 255 255 255
9.500000 9.950000 2.672804 255 255 255
9.500000 10.000000 2.702696 255 255 255
9.500000 10.050000 2.732438 255 255 255
9.500000 10.100000 2.768108 255 255 255
9.500000 10.150000 2.795874 255 255 255
9.500000 10.200000 2.802997 255 255 255
9.500000 10.250000 2.801860 255 255 255
9.500000 10.300000 2.800420 255 255 255
9.500000 10.350000 2.803153 255 255 255
9.500000 10.400000 2.833660 255 255 255
9.500000 10.450000 2.864661 255 255 255
9.500000 10.500000 2.914558 255 255 255
9.500000 10.550000 2.960359 255 255 255
9.500000 10.600000 3.004471 255 255 255
9.500000 10.650000 3.051854 255 255 255
9.500000 10.700000 3.081212 255 255 255
9.500000 10.750000 3.112974 255 255 255
9.500000 10.800000 3.123903 255 255 255
9.500000 10.850000 3.149147 255 255 255
9.500000 10.900000 3.159527 255 255 255
9.500000 10.950000 3.167585 255 255 255
9.500000 11.000000 3.185977 255 255 255
9.500000 11.050000 3.219935 255 255 255
9.500000 11.100000 3.262499 255 255 255
9.500000 11.150000 3.285523 255 255 255
9.500000 11.200000 3.329504 255 255 255
9.500000 11.250000 3.318839 255 255 255
9.500000 11.300000 3.386968 255 255 255
9.500000 11.350000 3.398860 255 255 255
9.500000 11.400000 3.405389 255 255 255
9.500000 11.450000 3.424842 255 255 255
9.500000 11.500000 3.430485 255 255 255
9.500000 11.550000 3.435553 255 255 255
9.500000 11.600000 3.438165 255 255 255
9.500000 11.650000 3.456365 255 255 255
9.500000 11.700000 3.479224 255 255 255
9.500000 11.750000 3.509576 255 255 255
9.500000 11.800000 3.523125 255 255 255
9.500000 11.850000 3.504082 255 255 255
9.500000 11.900000 3.610603 255 255 255
9.500000 11.950000 3.625870 255 255 255
9.500000 12.000000 3.651327 255 255 255
9.500000 12.050000 3.653332 255 255 255
9.500000 12.100000 3.653836 255 255 255
9.500000 12.150000 3.708653 255 255 255
9.500000 12.200000 3.709980 255 255 255
9.500000 12.250000 3.714998 255 255 255
9.500000 12.300000 3.721485 255 255 255
9.500000 12.350000 3.728749 255 255 255
9.500000 12.400000 3.736450 255 255 255
9.500000 12.450000 3.743995 255 255 255
9.500000 12.500000 3.752877 255 255 255
9.500000 12.550000 3.765337 255 255 255
9.500000 12.600000 3.781664 255 255 255
9.500000 12.650000 3.803438 255 255 255
9.500000 12.700000 3.827244 255 255 255
9.500000 12.750000 3.858200 255 255 255
9.500000 12.800000 3.877874 255 255 255
9.500000 12.850000 3.895589 255 255 255
9.500000 12.900000 3.918063 255 255 255
9.500000 12.950000 3.944437 255 255 255
9.500000 13.000000 3.969430 255 255 255
9.500000 13.050000 3.984737 255 255 255
9.500000 13.100000 3.993803 255 255 255
9.500000 13.150000 4.053844 255 255 255
9.500000 13.200000 4.115360 255 255 255
9.500000 13.250000 4.187952 255 255 255
9.500000 13.300000 4.202844 255 255 255
9.500000 13.350000 4.218649 255 255 255
9.500000 13.400000 4.223160 255 255 255
9.500000 13.450000 4.226119 255 255 255
9.500000 13.500000 4.230582 255 255 255
9.500000 13.550000 4.238434 255 255 255
9.500000 13.600000 4.235633 255 255 255
9.500000 13.650000 4.235971 255 255 255
9.500000 13.700000 4.225345 255 255 255
9.500000 13.750000 4.219766 255 255 255
9.500000 13.800000 4.215967 255 255 255
9.500000 13.850000 4.212608 255 255 255
9.500000 13.900000 4.240097 255 255 255
9.500000 13.950000 4.249870 255 255 255
9.500000 14.000000 4.251484 255 255 255
9.500000 14.050000 4.250613 255 255 255
9.500000 14.100000 4.252816 255 255 255
9.500000 14.150000 4.260512 255 255 255
9.500000 14.200000 4.261190 255 255 255
9.500000 14.250000 4.266744 255 255 255
9.500000 14.300000 4.276493 255 255 255
9.500000 14.350000 4.267973 255 255 255
9.500000 14.400000 4.251147 255 255 255
9.500000 14.450000 4.202276 255 255 255
9.500000 14.500000 4.152654 255 255 255
9.500000 14.550000 4.151919 255 255 255
9.500000 14.600000 4.172528 255 255 255
9.500000 14.650000 4.176869 255 255 255
9.500000 14.700000 4.184967 255 255 255
9.500000 14.750000 4.187942 255 255 255
9.500000 14.800000 4.199144 255 255 255
9.500000 14.850000 4.207907 255 255 255
9.500000 14.900000 4.197566 255 255 255
9.500000 14.950000 4.182839 255 255 255
9.500000 15.000000 4.167298 255 255 255
9.500000 15.050000 4.130633 255 255 255
9.500000 15.100000 4.095676 255 255 255
9.500000 15.150000 4.059161 255 255 255
9.500000 15.200000 4.017254 255 255 255
9.500000 15.250000 4.021320 255 255 255
9.500000 15.300000 3.991678 255 255 255
9.500000 15.350000 3.930286 255 255 255
9.500000 15.400000 3.920317 255 255 255
9.500000 15.450000 3.907032 255 255 255
9.500000 15.500000 3.881811 255 255 255
9.500000 15.550000 3.864388 255 255 255
9.500000 15.600000 3.818262 255 255 255
9.500000 15.650000 3.802683 255 255 255
9.500000 15.700000 3.786345 255 255 255
9.500000 15.750000 3.743463 255 255 255
9.500000 15.800000 3.707866 255 255 255
9.500000 15.850000 3.622468 255 255 255
9.500000 15.900000 3.544065 255 255 255
9.500000 15.950000 3.467482 255 255 255
9.500000 16.000000 3.487003 255 255 255
9.500000 16.050000 3.505302 255 255 255
9.500000 16.100000 3.468480 255 255 255
9.500000 16.150000 3.480054 255 255 255
9.500000 16.200000 3.486660 255 255 255
9.500000 16.250000 3.493750 255 255 255
9.500000 16.300000 3.499534 255 255 255
9.500000 16.350000 3.502473 255 255 255
9.500000 16.400000 3.511046 255 255 255
9.500000 16.450000 3.491147 255 255 255
9.500000 16.500000 3.478922 255 255 255
9.500000 16.550000 3.447994 255 255 255
9.500000 16.600000 3.411203 255 255 255
9.500000 16.650000 3.316578 255 255 255
9.500000 16.700000 3.342961 255 255 255
9.500000 16.750000 3.302155 255 255 255
9.500000 16.800000 3.264593 255 255 255
9.500000 16.850000 3.237127 255 255 255
9.500000 16.900000 3.203326 255 255 255
9.500000 16.950000 3.158458 255 255 255
9.500000 17.000000 3.128721 255 255 255
9.500000 17.050000 3.108616 255 255 255
9.500000 17.100000 3.071596 255 255 255
9.500000 17.150000 3.050080 255 255 255
9.500000 17.200000 3.028078 255 255 255
9.500000 17.250000 3.003670 255 255 255
9.500000 17.300000 2.967274 255 255 255
9.500000 17.350000 2.928835 255 255 255
9.500000 17.400000 2.889705 255 255 255
9.500000 17.450000 2.849734 255 255 255
9.500000 17.500000 2.809780 255 255 255
9.500000 17.550000 2.769680 255 255 255
9.500000 17.600000 2.729452 255 255 255
9.500000 17.650000 2.689130 255 255 255
9.500000 17.700000 2.648112 255 255 255
9.500000 17.750000 2.606175 255 255 255
9.500000 17.800000 2.563023 255 255 255
9.500000 17.850000 2.518031 255 255 255
9.500000 17.900000 2.470299 255 255 255
9.500000 17.950000 2.419443 255 255 255
9.500000 18.000000 2.359143 255 255 255
9.500000 18.050000 2.313153 255 255 255
9.500000 18.100000 2.297470 255 255 255
9.500000 18.150000 2.284174 255 255 255
9.500000 18.200000 2.271583 255 255 255
9.500000 18.250000 2.261780 255 255 255
9.500000 18.300000 2.255955 255 255 255
9.500000 18.350000 2.252462 255 255 255
9.500000 18.400000 2.249716 255 255 255
9.500000 18.450000 2.246575 255 255 255
9.500000 18.500000 2.244741 255 255 255
9.500000 18.550000 2.231979 255 255 255
9.500000 18.600000 2.173001 255 255 255
9.500000 18.650000 2.123743 255 255 255
9.500000 18.700000 2.111775 255 255 255
9.500000 18.750000 2.086453 255 255 255
9.500000 18.800000 2.037742 255 255 255
9.500000 18.850000 2.016816 255 255 255
9.550000 9.100000 2.007719 255 255 255
9.550000 9.150000 2.029279 255 255 255
9.550000 9.200000 2.084127 255 255 255
9.550000 9.250000 2.132399 255 255 255
9.550000 9.300000 2.175255 255 255 255
9.550000 9.350000 2.216759 255 255 255
9.550000 9.400000 2.270130 255 255 255
9.550000 9.450000 2.320576 255 255 255
9.550000 9.500000 2.368888 255 255 255
9.550000 9.550000 2.422237 255 255 255
9.550000 9.600000 2.477778 255 255 255
9.550000 9.650000 2.532104 255 255 255
9.550000 9.700000 2.553228 255 255 255
9.550000 9.750000 2.557867 255 255 255
9.550000 9.800000 2.571043 255 255 255
9.550000 9.850000 2.598436 255 255 255
9.550000 9.900000 2.633723 255 255 255
9.550000 9.950000 2.674199 255 255 255
9.550000 10.000000 2.699881 255 255 255
9.550000 10.050000 2.731026 255 255 255
9.550000 10.100000 2.757698 255 255 255
9.550000 10.150000 2.779845 255 255 255
9.550000 10.200000 2.791704 255 255 255
9.550000 10.250000 2.790428 255 255 255
9.550000 10.300000 2.793135 255 255 255
9.550000 10.350000 2.790626 255 255 255
9.550000 10.400000 2.821383 255 255 255
9.550000 10.450000 2.857744 255 255 255
9.550000 10.500000 2.899738 255 255 255
9.550000 10.550000 2.941911 255 255 255
9.550000 10.600000 3.003173 255 255 255
9.550000 10.650000 3.042628 255 255 255
9.550000 10.700000 3.073068 255 255 255
9.550000 10.750000 3.107126 255 255 255
9.550000 10.800000 3.117137 255 255 255
9.550000 10.850000 3.145496 255 255 255
9.550000 10.900000 3.153685 255 255 255
9.550000 10.950000 3.178187 255 255 255
9.550000 11.000000 3.200478 255 255 255
9.550000 11.050000 3.226480 255 255 255
9.550000 11.100000 3.275804 255 255 255
9.550000 11.150000 3.312878 255 255 255
9.550000 11.200000 3.327468 255 255 255
9.550000 11.250000 3.349688 255 255 255
9.550000 11.300000 3.338948 255 255 255
9.550000 11.350000 3.418115 255 255 255
9.550000 11.400000 3.419893 255 255 255
9.550000 11.450000 3.428226 255 255 255
9.550000 11.500000 3.431405 255 255 255
9.550000 11.550000 3.438679 255 255 255
9.550000 11.600000 3.443693 255 255 255
9.550000 11.650000 3.452961 255 255 255
9.550000 11.700000 3.470056 255 255 255
9.550000 11.750000 3.487499 255 255 255
9.550000 11.800000 3.504826 255 255 255
9.550000 11.850000 3.497283 255 255 255
9.550000 11.900000 3.586388 255 255 255
9.550000 11.950000 3.608291 255 255 255
9.550000 12.000000 3.623104 255 255 255
9.550000 12.050000 3.637404 255 255 255
9.550000 12.100000 3.653457 255 255 255
9.550000 12.150000 3.706569 255 255 255
9.550000 12.200000 3.709673 255 255 255
9.550000 12.250000 3.716464 255 255 255
9.550000 12.300000 3.723365 255 255 255
9.550000 12.350000 3.730668 255 255 255
9.550000 12.400000 3.738398 255 255 255
9.550000 12.450000 3.743049 255 255 255
9.550000 12.500000 3.748230 255 255 255
9.550000 12.550000 3.760158 255 255 255
9.550000 12.600000 3.775738 255 255 255
9.550000 12.650000 3.804217 255 255 255
9.550000 12.700000 3.834751 255 255 255
9.550000 12.750000 3.871028 255 255 255
9.550000 12.800000 3.890415 255 255 255
9.550000 12.850000 3.899159 255 255 255
9.550000 12.900000 3.922177 255 255 255
9.550000 12.950000 3.950942 255 255 255
9.550000 13.000000 3.983380 255 255 255
9.550000 13.050000 4.003286 255 255 255
9.550000 13.100000 4.034157 255 255 255
9.550000 13.150000 4.064040 255 255 255
9.550000 13.200000 4.123706 255 255 255
9.550000 13.250000 4.193396 255 255 255
9.550000 13.300000 4.207732 255 255 255
9.550000 13.350000 4.222859 255 255 255
9.550000 13.400000 4.228301 255 255 255
9.550000 13.450000 4.231099 255 255 255
9.550000 13.500000 4.235353 255 255 255
9.550000 13.550000 4.245877 255 255 255
9.550000 13.600000 4.244882 255 255 255
9.550000 13.650000 4.239659 255 255 255
9.550000 13.700000 4.230980 255 255 255
9.550000 13.750000 4.224531 255 255 255
9.550000 13.800000 4.224777 255 255 255
9.550000 13.850000 4.204826 255 255 255
9.550000 13.900000 4.250162 255 255 255
9.550000 13.950000 4.253652 255 255 255
9.550000 14.000000 4.262510 255 255 255
9.550000 14.050000 4.259526 255 255 255
9.550000 14.100000 4.260182 255 255 255
9.550000 14.150000 4.267633 255 255 255
9.550000 14.200000 4.268225 255 255 255
9.550000 14.250000 4.274277 255 255 255
9.550000 14.300000 4.283729 255 255 255
9.550000 14.350000 4.279398 255 255 255
9.550000 14.400000 4.270472 255 255 255
9.550000 14.450000 4.215261 255 255 255
9.550000 14.500000 4.158817 255 255 255
9.550000 14.550000 4.158198 255 255 255
9.550000 14.600000 4.179227 255 255 255
9.550000 14.650000 4.182436 255 255 255
9.550000 14.700000 4.189032 255 255 255
9.550000 14.750000 4.190688 255 255 255
9.550000 14.800000 4.199432 255 255 255
9.550000 14.850000 4.205395 255 255 255
9.550000 14.900000 4.197532 255 255 255
9.550000 14.950000 4.182858 255 255 255
9.550000 15.000000 4.154990 255 255 255
9.550000 15.050000 4.132031 255 255 255
9.550000 15.100000 4.098202 255 255 255
9.550000 15.150000 4.056603 255 255 255
9.550000 15.200000 4.042614 255 255 255
9.550000 15.250000 4.051459 255 255 255
9.550000 15.300000 3.973955 255 255 255
9.550000 15.350000 3.946510 255 255 255
9.550000 15.400000 3.931839 255 255 255
9.550000 15.450000 3.922424 255 255 255
9.550000 15.500000 3.870474 255 255 255
9.550000 15.550000 3.855253 255 255 255
9.550000 15.600000 3.832268 255 255 255
9.550000 15.650000 3.793954 255 255 255
9.550000 15.700000 3.785772 255 255 255
9.550000 15.750000 3.749451 255 255 255
9.550000 15.800000 3.704081 255 255 255
9.550000 15.850000 3.613904 255 255 255
9.550000 15.900000 3.546165 255 255 255
9.550000 15.950000 3.475623 255 255 255
9.550000 16.000000 3.494449 255 255 255
9.550000 16.050000 3.509059 255 255 255
9.550000 16.100000 3.456864 255 255 255
9.550000 16.150000 3.479070 255 255 255
9.550000 16.200000 3.487898 255 255 255
9.550000 16.250000 3.493044 255 255 255
9.550000 16.300000 3.496381 255 255 255
9.550000 16.350000 3.498106 255 255 255
9.550000 16.400000 3.498978 255 255 255
9.550000 16.450000 3.493701 255 255 255
9.550000 16.500000 3.495257 255 255 255
9.550000 16.550000 3.456242 255 255 255
9.550000 16.600000 3.450086 255 255 255
9.550000 16.650000 3.348761 255 255 255
9.550000 16.700000 3.355293 255 255 255
9.550000 16.750000 3.293302 255 255 255
9.550000 16.800000 3.279218 255 255 255
9.550000 16.850000 3.239266 255 255 255
9.550000 16.900000 3.194858 255 255 255
9.550000 16.950000 3.167731 255 255 255
9.550000 17.000000 3.128357 255 255 255
9.550000 17.050000 3.108919 255 255 255
9.550000 17.100000 3.073561 255 255 255
9.550000 17.150000 3.054554 255 255 255
9.550000 17.200000 3.036293 255 255 255
9.550000 17.250000 3.006382 255 255 255
9.550000 17.300000 2.970302 255 255 255
9.550000 17.350000 2.931780 255 255 255
9.550000 17.400000 2.892250 255 255 255
9.550000 17.450000 2.852081 255 255 255
9.550000 17.500000 2.810834 255 255 255
9.550000 17.550000 2.769314 255 255 255
9.550000 17.600000 2.727707 255 255 255
9.550000 17.650000 2.686697 255 255 255
9.550000 17.700000 2.645376 255 255 255
9.550000 17.750000 2.603559 255 255 255
9.550000 17.800000 2.560688 255 255 255
9.550000 17.850000 2.515617 255 255 255
9.550000 17.900000 2.467241 255 255 255
9.550000 17.950000 2.416393 255 255 255
9.550000 18.000000 2.359391 255 255 255
9.550000 18.050000 2.300141 255 255 255
9.550000 18.100000 2.294107 255 255 255
9.550000 18.150000 2.285582 255 255 255
9.550000 18.200000 2.276599 255 255 255
9.550000 18.250000 2.268710 255 255 255
9.550000 18.300000 2.262678 255 255 255
9.550000 18.350000 2.258155 255 255 255
9.550000 18.400000 2.254484 255 255 255
9.550000 18.450000 2.251196 255 255 255
9.550000 18.500000 2.248279 255 255 255
9.550000 18.550000 2.244225 255 255 255
9.550000 18.600000 2.222752 255 255 255
9.550000 18.650000 2.140752 255 255 255
9.550000 18.700000 2.113147 255 255 255
9.550000 18.750000 2.085188 255 255 255
9.550000 18.800000 2.049875 255 255 255
9.550000 18.850000 2.016258 255 255 255
9.600000 9.150000 2.024648 255 255 255
9.600000 9.200000 2.080860 255 255 255
9.600000 9.250000 2.127508 255 255 255
9.600000 9.300000 2.176833 255 255 255
9.600000 9.350000 2.220818 255 255 255
9.600000 9.400000 2.268074 255 255 255
9.600000 9.450000 2.323035 255 255 255
9.600000 9.500000 2.368078 255 255 255
9.600000 9.550000 2.416832 255 255 255
9.600000 9.600000 2.475386 255 255 255
9.600000 9.650000 2.529139 255 255 255
9.600000 9.700000 2.555519 255 255 255
9.600000 9.750000 2.566652 255 255 255
9.600000 9.800000 2.576111 255 255 255
9.600000 9.850000 2.606409 255 255 255
9.600000 9.900000 2.633279 255 255 255
9.600000 9.950000 2.677165 255 255 255
9.600000 10.000000 2.701274 255 255 255
9.600000 10.050000 2.733356 255 255 255
9.600000 10.100000 2.729137 255 255 255
9.600000 10.150000 2.767110 255 255 255
9.600000 10.200000 2.781587 255 255 255
9.600000 10.250000 2.776208 255 255 255
9.600000 10.300000 2.775489 255 255 255
9.600000 10.350000 2.786659 255 255 255
9.600000 10.400000 2.806756 255 255 255
9.600000 10.450000 2.836251 255 255 255
9.600000 10.500000 2.887567 255 255 255
9.600000 10.550000 2.936597 255 255 255
9.600000 10.600000 2.987578 255 255 255
9.600000 10.650000 3.038782 255 255 255
9.600000 10.700000 3.062580 255 255 255
9.600000 10.750000 3.106183 255 255 255
9.600000 10.800000 3.099623 255 255 255
9.600000 10.850000 3.158838 255 255 255
9.600000 10.900000 3.161081 255 255 255
9.600000 10.950000 3.179208 255 255 255
9.600000 11.000000 3.199654 255 255 255
9.600000 11.050000 3.233789 255 255 255
9.600000 11.100000 3.273730 255 255 255
9.600000 11.150000 3.335885 255 255 255
9.600000 11.200000 3.346721 255 255 255
9.600000 11.250000 3.358573 255 255 255
9.600000 11.300000 3.368005 255 255 255
9.600000 11.350000 3.400014 255 255 255
9.600000 11.400000 3.412695 255 255 255
9.600000 11.450000 3.419820 255 255 255
9.600000 11.500000 3.428188 255 255 255
9.600000 11.550000 3.444089 255 255 255
9.600000 11.600000 3.444992 255 255 255
9.600000 11.650000 3.435310 255 255 255
9.600000 11.700000 3.448524 255 255 255
9.600000 11.750000 3.473032 255 255 255
9.600000 11.800000 3.489865 255 255 255
9.600000 11.850000 3.503473 255 255 255
9.600000 11.900000 3.514071 255 255 255
9.600000 11.950000 3.601418 255 255 255
9.600000 12.000000 3.609274 255 255 255
9.600000 12.050000 3.637528 255 255 255
9.600000 12.100000 3.662572 255 255 255
9.600000 12.150000 3.692971 255 255 255
9.600000 12.200000 3.705631 255 255 255
9.600000 12.250000 3.717835 255 255 255
9.600000 12.300000 3.724837 255 255 255
9.600000 12.350000 3.732151 255 255 255
9.600000 12.400000 3.743442 255 255 255
9.600000 12.450000 3.741576 255 255 255
9.600000 12.500000 3.736791 255 255 255
9.600000 12.550000 3.751349 255 255 255
9.600000 12.600000 3.756956 255 255 255
9.600000 12.650000 3.819225 255 255 255
9.600000 12.700000 3.829174 255 255 255
9.600000 12.750000 3.895583 255 255 255
9.600000 12.800000 3.901843 255 255 255
9.600000 12.850000 3.901317 255 255 255
9.600000 12.900000 3.929494 255 255 255
9.600000 12.950000 3.957645 255 255 255
9.600000 13.000000 4.002159 255 255 255
9.600000 13.050000 4.021211 255 255 255
9.600000 13.100000 4.046910 255 255 255
9.600000 13.150000 4.091159 255 255 255
9.600000 13.200000 4.122022 255 255 255
9.600000 13.250000 4.187267 255 255 255
9.600000 13.300000 4.211792 255 255 255
9.600000 13.350000 4.237696 255 255 255
9.600000 13.400000 4.237334 255 255 255
9.600000 13.450000 4.230935 255 255 255
9.600000 13.500000 4.249287 255 255 255
9.600000 13.550000 4.251904 255 255 255
9.600000 13.600000 4.253254 255 255 255
9.600000 13.650000 4.246794 255 255 255
9.600000 13.700000 4.240175 255 255 255
9.600000 13.750000 4.236776 255 255 255
9.600000 13.800000 4.243477 255 255 255
9.600000 13.850000 4.244925 255 255 255
9.600000 13.900000 4.247808 255 255 255
9.600000 13.950000 4.254060 255 255 255
9.600000 14.000000 4.264409 255 255 255
9.600000 14.050000 4.265411 255 255 255
9.600000 14.100000 4.265801 255 255 255
9.600000 14.150000 4.272784 255 255 255
9.600000 14.200000 4.276117 255 255 255
9.600000 14.250000 4.280932 255 255 255
9.600000 14.300000 4.293203 255 255 255
9.600000 14.350000 4.284564 255 255 255
9.600000 14.400000 4.279686 255 255 255
9.600000 14.450000 4.229494 255 255 255
9.600000 14.500000 4.173540 255 255 255
9.600000 14.550000 4.171623 255 255 255
9.600000 14.600000 4.185759 255 255 255
9.600000 14.650000 4.189021 255 255 255
9.600000 14.700000 4.193638 255 255 255
9.600000 14.750000 4.196437 255 255 255
9.600000 14.800000 4.205052 255 255 255
9.600000 14.850000 4.208002 255 255 255
9.600000 14.900000 4.205830 255 255 255
9.600000 14.950000 4.188096 255 255 255
9.600000 15.000000 4.138721 255 255 255
9.600000 15.050000 4.127853 255 255 255
9.600000 15.100000 4.111969 255 255 255
9.600000 15.150000 4.040859 255 255 255
9.600000 15.200000 4.045091 255 255 255
9.600000 15.250000 4.040155 255 255 255
9.600000 15.300000 3.975635 255 255 255
9.600000 15.350000 3.955449 255 255 255
9.600000 15.400000 3.940618 255 255 255
9.600000 15.450000 3.931291 255 255 255
9.600000 15.500000 3.870632 255 255 255
9.600000 15.550000 3.851591 255 255 255
9.600000 15.600000 3.815694 255 255 255
9.600000 15.650000 3.793070 255 255 255
9.600000 15.700000 3.779467 255 255 255
9.600000 15.750000 3.764385 255 255 255
9.600000 15.800000 3.679162 255 255 255
9.600000 15.850000 3.582849 255 255 255
9.600000 15.900000 3.551108 255 255 255
9.600000 15.950000 3.523214 255 255 255
9.600000 16.000000 3.506113 255 255 255
9.600000 16.050000 3.522763 255 255 255
9.600000 16.100000 3.494174 255 255 255
9.600000 16.150000 3.491541 255 255 255
9.600000 16.200000 3.492787 255 255 255
9.600000 16.250000 3.494149 255 255 255
9.600000 16.300000 3.494862 255 255 255
9.600000 16.350000 3.494579 255 255 255
9.600000 16.400000 3.493065 255 255 255
9.600000 16.450000 3.489363 255 255 255
9.600000 16.500000 3.485629 255 255 255
9.600000 16.550000 3.478729 255 255 255
9.600000 16.600000 3.455441 255 255 255
9.600000 16.650000 3.401728 255 255 255
9.600000 16.700000 3.367747 255 255 255
9.600000 16.750000 3.315674 255 255 255
9.600000 16.800000 3.281772 255 255 255
9.600000 16.850000 3.252937 255 255 255
9.600000 16.900000 3.204329 255 255 255
9.600000 16.950000 3.171810 255 255 255
9.600000 17.000000 3.135642 255 255 255
9.600000 17.050000 3.105184 255 255 255
9.600000 17.100000 3.075171 255 255 255
9.600000 17.150000 3.058294 255 255 255
9.600000 17.200000 3.039606 255 255 255
9.600000 17.250000 3.015246 255 255 255
9.600000 17.300000 2.975773 255 255 255
9.600000 17.350000 2.935735 255 255 255
9.600000 17.400000 2.895434 255 255 255
9.600000 17.450000 2.855500 255 255 255
9.600000 17.500000 2.812163 255 255 255
9.600000 17.550000 2.769033 255 255 255
9.600000 17.600000 2.725365 255 255 255
9.600000 17.650000 2.684581 255 255 255
9.600000 17.700000 2.643137 255 255 255
9.600000 17.750000 2.601995 255 255 255
9.600000 17.800000 2.560558 255 255 255
9.600000 17.850000 2.516502 255 255 255
9.600000 17.900000 2.466658 255 255 255
9.600000 17.950000 2.414967 255 255 255
9.600000 18.000000 2.355947 255 255 255
9.600000 18.050000 2.296788 255 255 255
9.600000 18.100000 2.293272 255 255 255
9.600000 18.150000 2.287426 255 255 255
9.600000 18.200000 2.280524 255 255 255
9.600000 18.250000 2.273782 255 255 255
9.600000 18.300000 2.267895 255 255 255
9.600000 18.350000 2.262991 255 255 255
9.600000 18.400000 2.258876 255 255 255
9.600000 18.450000 2.255430 255 255 255
9.600000 18.500000 2.252954 255 255 255
9.600000 18.550000 2.253180 255 255 255
9.600000 18.600000 2.248945 255 255 255
9.600000 18.650000 2.139769 255 255 255
9.600000 18.700000 2.116906 255 255 255
9.600000 18.750000 2.093429 255 255 255
9.600000 18.800000 2.066833 255 255 255
9.600000 18.850000 2.015327 255 255 255
9.650000 9.150000 2.034342 255 255 255
9.650000 9.200000 2.081479 255 255 255
9.650000 9.250000 2.128680 255 255 255
9.650000 9.300000 2.166394 255 255 255
9.650000 9.350000 2.213100 255 255 255
9.650000 9.400000 2.260275 255 255 255
9.650000 9.450000 2.319405 255 255 255
9.650000 9.500000 2.361723 255 255 255
9.650000 9.550000 2.416597 255 255 255
9.650000 9.600000 2.466979 255 255 255
9.650000 9.650000 2.524313 255 255 255
9.650000 9.700000 2.551410 255 255 255
9.650000 9.750000 2.569812 255 255 255
9.650000 9.800000 2.594306 255 255 255
9.650000 9.850000 2.614603 255 255 255
9.650000 9.900000 2.644377 255 255 255
9.650000 9.950000 2.686910 255 255 255
9.650000 10.000000 2.713124 255 255 255
9.650000 10.050000 2.724048 255 255 255
9.650000 10.100000 2.727400 255 255 255
9.650000 10.150000 2.742555 255 255 255
9.650000 10.200000 2.761773 255 255 255
9.650000 10.250000 2.768494 255 255 255
9.650000 10.300000 2.772316 255 255 255
9.650000 10.350000 2.775154 255 255 255
9.650000 10.400000 2.795130 255 255 255
9.650000 10.450000 2.845427 255 255 255
9.650000 10.500000 2.887432 255 255 255
9.650000 10.550000 2.929364 255 255 255
9.650000 10.600000 2.969461 255 255 255
9.650000 10.650000 3.022540 255 255 255
9.650000 10.700000 3.061975 255 255 255
9.650000 10.750000 3.093219 255 255 255
9.650000 10.800000 3.109953 255 255 255
9.650000 10.850000 3.135176 255 255 255
9.650000 10.900000 3.159113 255 255 255
9.650000 10.950000 3.171107 255 255 255
9.650000 11.000000 3.192321 255 255 255
9.650000 11.050000 3.240235 255 255 255
9.650000 11.100000 3.283114 255 255 255
9.650000 11.150000 3.336194 255 255 255
9.650000 11.200000 3.363449 255 255 255
9.650000 11.250000 3.369856 255 255 255
9.650000 11.300000 3.378033 255 255 255
9.650000 11.350000 3.398725 255 255 255
9.650000 11.400000 3.402223 255 255 255
9.650000 11.450000 3.404187 255 255 255
9.650000 11.500000 3.403039 255 255 255
9.650000 11.550000 3.464499 255 255 255
9.650000 11.600000 3.456856 255 255 255
9.650000 11.650000 3.451011 255 255 255
9.650000 11.700000 3.455185 255 255 255
9.650000 11.750000 3.472112 255 255 255
9.650000 11.800000 3.488504 255 255 255
9.650000 11.850000 3.512231 255 255 255
9.650000 11.900000 3.546480 255 255 255
9.650000 11.950000 3.562459 255 255 255
9.650000 12.000000 3.555399 255 255 255
9.650000 12.050000 3.641837 255 255 255
9.650000 12.100000 3.658336 255 255 255
9.650000 12.150000 3.682507 255 255 255
9.650000 12.200000 3.691727 255 255 255
9.650000 12.250000 3.724436 255 255 255
9.650000 12.300000 3.725985 255 255 255
9.650000 12.350000 3.729678 255 255 255
9.650000 12.400000 3.761616 255 255 255
9.650000 12.450000 3.743061 255 255 255
9.650000 12.500000 3.706042 255 255 255
9.650000 12.550000 3.751567 255 255 255
9.650000 12.600000 3.793698 255 255 255
9.650000 12.650000 3.827200 255 255 255
9.650000 12.700000 3.862814 255 255 255
9.650000 12.750000 3.913454 255 255 255
9.650000 12.800000 3.900043 255 255 255
9.650000 12.850000 3.883182 255 255 255
9.650000 12.900000 3.936856 255 255 255
9.650000 12.950000 3.948025 255 255 255
9.650000 13.000000 4.030414 255 255 255
9.650000 13.050000 4.043458 255 255 255
9.650000 13.100000 4.062641 255 255 255
9.650000 13.150000 4.094806 255 255 255
9.650000 13.200000 4.149572 255 255 255
9.650000 13.250000 4.151350 255 255 255
9.650000 13.300000 4.222082 255 255 255
9.650000 13.350000 4.252509 255 255 255
9.650000 13.400000 4.256297 255 255 255
9.650000 13.450000 4.265079 255 255 255
9.650000 13.500000 4.259480 255 255 255
9.650000 13.550000 4.264250 255 255 255
9.650000 13.600000 4.258527 255 255 255
9.650000 13.650000 4.252080 255 255 255
9.650000 13.700000 4.249999 255 255 255
9.650000 13.750000 4.249330 255 255 255
9.650000 13.800000 4.250700 255 255 255
9.650000 13.850000 4.250521 255 255 255
9.650000 13.900000 4.252501 255 255 255
9.650000 13.950000 4.265187 255 255 255
9.650000 14.000000 4.268898 255 255 255
9.650000 14.050000 4.271900 255 255 255
9.650000 14.100000 4.269867 255 255 255
9.650000 14.150000 4.276539 255 255 255
9.650000 14.200000 4.289009 255 255 255
9.650000 14.250000 4.290345 255 255 255
9.650000 14.300000 4.293281 255 255 255
9.650000 14.350000 4.279509 255 255 255
9.650000 14.400000 4.267025 255 255 255
9.650000 14.450000 4.227722 255 255 255
9.650000 14.500000 4.194809 255 255 255
9.650000 14.550000 4.187092 255 255 255
9.650000 14.600000 4.194350 255 255 255
9.650000 14.650000 4.195494 255 255 255
9.650000 14.700000 4.201327 255 255 255
9.650000 14.750000 4.206442 255 255 255
9.650000 14.800000 4.213208 255 255 255
9.650000 14.850000 4.217098 255 255 255
9.650000 14.900000 4.208054 255 255 255
9.650000 14.950000 4.188732 255 255 255
9.650000 15.000000 4.137740 255 255 255
9.650000 15.050000 4.127157 255 255 255
9.650000 15.100000 4.119476 255 255 255
9.650000 15.150000 4.050115 255 255 255
9.650000 15.200000 4.037230 255 255 255
9.650000 15.250000 4.029597 255 255 255
9.650000 15.300000 3.970847 255 255 255
9.650000 15.350000 3.959116 255 255 255
9.650000 15.400000 3.947360 255 255 255
9.650000 15.450000 3.934910 255 255 255
9.650000 15.500000 3.877371 255 255 255
9.650000 15.550000 3.862446 255 255 255
9.650000 15.600000 3.806948 255 255 255
9.650000 15.650000 3.784673 255 255 255
9.650000 15.700000 3.764458 255 255 255
9.650000 15.750000 3.745733 255 255 255
9.650000 15.800000 3.665327 255 255 255
9.650000 15.850000 3.580828 255 255 255
9.650000 15.900000 3.517044 255 255 255
9.650000 15.950000 3.529628 255 255 255
9.650000 16.000000 3.512982 255 255 255
9.650000 16.050000 3.515270 255 255 255
9.650000 16.100000 3.505509 255 255 255
9.650000 16.150000 3.500171 255 255 255
9.650000 16.200000 3.497558 255 255 255
9.650000 16.250000 3.495908 255 255 255
9.650000 16.300000 3.494329 255 255 255
9.650000 16.350000 3.492282 255 255 255
9.650000 16.400000 3.489355 255 255 255
9.650000 16.450000 3.485046 255 255 255
9.650000 16.500000 3.479138 255 255 255
9.650000 16.550000 3.469469 255 255 255
9.650000 16.600000 3.456356 255 255 255
9.650000 16.650000 3.429334 255 255 255
9.650000 16.700000 3.382422 255 255 255
9.650000 16.750000 3.330011 255 255 255
9.650000 16.800000 3.296713 255 255 255
9.650000 16.850000 3.266412 255 255 255
9.650000 16.900000 3.217685 255 255 255
9.650000 16.950000 3.169425 255 255 255
9.650000 17.000000 3.137203 255 255 255
9.650000 17.050000 3.097570 255 255 255
9.650000 17.100000 3.063655 255 255 255
9.650000 17.150000 3.063845 255 255 255
9.650000 17.200000 3.049099 255 255 255
9.650000 17.250000 3.023204 255 255 255
9.650000 17.300000 2.981798 255 255 255
9.650000 17.350000 2.939956 255 255 255
9.650000 17.400000 2.898247 255 255 255
9.650000 17.450000 2.857115 255 255 255
9.650000 17.500000 2.812590 255 255 255
9.650000 17.550000 2.768601 255 255 255
9.650000 17.600000 2.724657 255 255 255
9.650000 17.650000 2.683123 255 255 255
9.650000 17.700000 2.640592 255 255 255
9.650000 17.750000 2.600726 255 255 255
9.650000 17.800000 2.563042 255 255 255
9.650000 17.850000 2.517973 255 255 255
9.650000 17.900000 2.467231 255 255 255
9.650000 17.950000 2.414820 255 255 255
9.650000 18.000000 2.357610 255 255 255
9.650000 18.050000 2.296287 255 255 255
9.650000 18.100000 2.294818 255 255 255
9.650000 18.150000 2.290318 255 255 255
9.650000 18.200000 2.284297 255 255 255
9.650000 18.250000 2.277988 255 255 255
9.650000 18.300000 2.272135 255 255 255
9.650000 18.350000 2.267029 255 255 255
9.650000 18.400000 2.262609 255 255 255
9.650000 18.450000 2.258681 255 255 255
9.650000 18.500000 2.254962 255 255 255
9.650000 18.550000 2.251079 255 255 255
9.650000 18.600000 2.233921 255 255 255
9.650000 18.650000 2.155559 255 255 255
9.650000 18.700000 2.119310 255 255 255
9.650000 18.750000 2.101134 255 255 255
9.650000 18.800000 2.070428 255 255 255
9.650000 18.850000 2.019349 255 255 255
9.650000 18.900000 2.012482 255 255 255
9.700000 9.100000 2.006627 255 255 255
9.700000 9.150000 2.036443 255 255 255
9.700000 9.200000 2.081150 255 255 255
9.700000 9.250000 2.122177 255 255 255
9.700000 9.300000 2.159981 255 255 255
9.700000 9.350000 2.198298 255 255 255
9.700000 9.400000 2.246523 255 255 255
9.700000 9.450000 2.307031 255 255 255
9.700000 9.500000 2.353533 255 255 255
9.700000 9.550000 2.403927 255 255 255
9.700000 9.600000 2.458904 255 255 255
9.700000 9.650000 2.511405 255 255 255
9.700000 9.700000 2.562234 255 255 255
9.700000 9.750000 2.587808 255 255 255
9.700000 9.800000 2.614509 255 255 255
9.700000 9.850000 2.637577 255 255 255
9.700000 9.900000 2.674325 255 255 255
9.700000 9.950000 2.695643 255 255 255
9.700000 10.000000 2.710749 255 255 255
9.700000 10.050000 2.722308 255 255 255
9.700000 10.100000 2.731574 255 255 255
9.700000 10.150000 2.743429 255 255 255
9.700000 10.200000 2.755777 255 255 255
9.700000 10.250000 2.763682 255 255 255
9.700000 10.300000 2.767378 255 255 255
